# 3D point list with one line of data per point:
#   POINT3D_ID, X, Y, Z, R, G, B, ERROR, TRACK[] as (IMAGE_ID, POINT2D_IDX)
# Number of points: 374, mean track length: 7.1442219853836786
29665 -9.8239432759189462 2.1472566623374982 10.701135785965841 182 150 120 0.40026213734939481 13 2576 12 2136 11 2218 10 2371 7 1515
29664 -9.8364211778241035 2.1446886829815028 10.725497061107024 182 150 120 0.39536186415127078 13 2575 12 2135 11 2219 10 2370 7 1514 5 1038 4 1778
29663 -5.4820370496991586 1.6636231771813699 11.427111229353068 152 130 107 0.8856239182671618 13 2570 14 2912 12 2127 5 1028 4 1729 2 1539
29662 -6.7422285731696761 1.7008756944499495 11.174734373823709 148 137 128 0.11972274416168999 17 3258 12 2120 11 2209 4 1715
29661 -10.26882136354668 2.2246157486453408 10.272580324070605 171 131 99 0.46733696472385716 13 2557 12 2115 11 2195 10 2368 9 1744 8 1519 7 1512 6 998 5 1034
29660 -7.1967016980952589 1.708895369838821 11.103341080896566 183 173 163 0.45445067102187059 13 2565 12 2102 11 2204 10 2352 9 1718 8 1495 6 970 4 1710
29659 -8.7260262057160247 1.6402151930719959 10.850367442503446 128 119 112 0.41584965862912338 13 2534 14 2846 12 2075 10 2327 9 1713 8 1483
29658 -9.0491227445767812 1.7078513944491958 10.818981757065457 17 8 2 1.0515015854017391 13 2532 14 2123 15 3420 12 2069 10 733 4 12 5 14
29657 -9.4768543913122265 1.7020671231808373 10.736995328846207 52 33 19 0.32678838676529087 13 1878 12 2068 10 1814 9 404
29656 -5.7738318301640001 2.2628731719105328 5.3317085145806491 150 104 70 0.65728741580072603 14 2802 12 2042 11 2119 9 1609
29655 -5.8045090824095373 2.2601501297274402 5.3215709398631326 157 113 78 0.75735707101960459 14 2800 12 2041 11 2118
29654 -6.9769976175192454 0.67319975929943654 10.857542943496366 96 74 53 0.35322641115141923 14 2782 12 2019 10 2255
29653 -8.6161023194474833 0.74770638572952586 10.536029168117388 122 103 86 0.15589031712805099 14 1969 12 2013 10 1690
29652 -7.8377902325891196 0.62664426547536245 10.729284395808531 19 5 1 0.28304598546770543 14 2765 12 2008 11 2060
29651 -8.4633412506337269 0.6944289250500767 10.580757464272647 98 77 60 0.31005303665297373 13 2457 14 2762 12 2005 10 2232 9 1635 8 1379
29650 -8.4633412506337269 0.6944289250500767 10.580757464272647 98 77 60 0.31005303665297373 13 2456 14 2761 12 2004 10 2231 9 1634 8 1378
29649 -9.1660709238003992 0.42863097882508522 10.435536489210177 104 83 62 0.43875295544844717 13 2429 14 2731 12 1975 11 2042 10 1634
29647 -9.0796972158371361 -0.7970718469091449 10.424000571508417 169 154 135 0.6855369714875621 14 2664 12 1927 11 1978 13 2371
29646 -6.1801087618076505 7.8946267291729599 15.067743050576235 103 100 91 0.93896600107753136 14 2587 16 1314 12 1906 5 625
29645 -4.6930470335705596 7.4457531202389067 15.954607005276108 95 94 89 1.7491945410007679 14 2549 12 1885 15 2997
29644 -4.8338097698742928 7.5071906333810334 16.056027415289947 123 122 117 0.96859625773760438 15 2995 12 1884 5 615
29643 -8.2080528111028883 7.9445578043982703 14.979577047892402 59 55 46 1.010767963279454 15 3021 16 2750 12 1877 7 829 5 603 4 1015
29642 -8.6098981204163749 7.2591917168139624 12.2785132852221 68 50 39 0.88326441083680796 13 1444 14 1604 15 3017 12 1875 10 2102 9 887 7 1685 6 897 5 942 3 1467
29641 -9.9764870043249054 7.8035078640438211 13.897255980176826 17 13 3 0.34688367493512934 15 2985 12 1859 8 772
29640 -6.2614405565404594 7.52739109868853 16.330093321663341 132 132 124 0.94583661730381652 13 2270 15 1549 12 1857 11 1932 4 971
29639 -8.5832163945259179 6.876888333687873 12.293504357789883 173 138 106 0.39078923486400269 15 2960 16 2704 12 1853 3 825
29638 -9.9598175770657988 7.3149252421120794 13.895161340569139 35 28 11 0.30107633950368584 15 2932 12 1842 9 1482
29637 -4.6529137803421392 6.9360339589849938 17.637041984056562 91 90 85 0.50746667423957381 21 1521 12 1839 20 1179
29636 -9.9982878734052285 7.2798432991042423 13.946988342409902 64 61 46 0.49790102159055649 13 2248 14 3108 12 1832 11 1912 7 1335
29635 -8.6160371635610957 6.0739779133277016 12.028255634613599 52 35 21 0.46988205459966786 13 1292 15 2875 12 1814 7 719 6 432
29634 -6.8413720651732426 6.7036331958093367 18.892567511065636 79 81 78 0.97234157842552493 16 2607 12 1802 11 1888 10 2058 9 1468 6 444 4 913 3 798 2 1319
29633 -6.8413720651732426 6.7036331958093367 18.892567511065636 79 81 78 0.97234157842552493 16 2608 12 1801 11 1889 10 2057 9 1467 6 445 4 914 3 797 2 1320
29632 -8.5143536931867896 5.7971097079451681 11.995102351390074 168 136 112 0.51261255651902049 14 1360 15 2860 16 2591 12 1800 11 1880 10 2050 9 1460 6 413 3 737
29631 -5.4108510081222958 5.5207336299666068 22.230303101007209 161 155 148 0.64210838022424843 17 2510 12 1778 3 721
29630 -5.1157732283662805 3.7187244398514245 6.7963182429525979 78 34 6 0.49531676717084072 14 2394 12 1764 11 1062
29629 -8.6682463275865569 5.3625871894014088 17.804475315949958 110 89 69 1.0417227554158643 16 2551 12 1759 10 1177
29628 -10.948041587293199 4.9076512646428601 12.244395716496621 88 37 3 0.98551037534813934 13 1116 12 1748 11 1030 10 1158 9 689 4 1528
29627 -8.3624708432161778 4.0388056574693589 11.517048000184063 126 86 60 0.067443253107270687 14 2359 12 1738 13 2107
29626 -9.9082779054135575 4.0888910413775212 11.746080348745302 89 71 47 0.32084089043897662 13 2678 14 3005 12 1734
29625 -9.6289195012047841 4.0014563566383741 10.558406044678637 38 10 2 0.96491088217246901 13 1028 12 1733 6 806
29624 -9.6394751366094837 3.9777316591979299 10.504282740326582 166 128 107 0.4205170001863035 13 2100 12 1732 7 1607
29623 -9.7610983317886451 4.0401075371940802 10.537792151661817 172 129 100 0.52685202396267461 13 2103 12 1729 7 523 11 998 6 805
29622 -10.215227973806822 3.9780981374095714 10.513178233898644 150 107 87 0.62189875712207954 13 1023 12 1727 11 993 10 1107 9 650 8 546 7 501 6 295
29621 -8.4434581539329283 3.6953082490873368 11.58407244402791 168 134 108 0.55549342066556506 16 775 12 1726 11 1824 10 1985 9 1398 8 1206 7 1207 5 865
29620 -9.3549189476845687 3.7580282271730052 10.588750125153801 146 112 87 0.3667057987680199 13 2094 14 2346 12 1725 11 1821 10 1114 9 1388 8 530 7 1205
29619 -9.4108662533879919 3.8061018763645578 10.542663223419813 154 122 98 0.46703076816297429 13 1031 14 1116 12 1724 11 1822 10 1983 9 655 8 528
29618 -9.3868411728873262 3.5143606041136772 11.022880839029892 84 49 14 0.561076483608968 13 2085 12 1720 11 1817 8 511
29617 -9.3856023894426599 3.4748573668626266 11.086651945477284 80 47 16 0.71002183685116371 13 2084 14 2319 12 1713 11 960 8 490 6 775
29616 -9.4036030187245494 3.3851341789140004 11.116507845258463 106 82 58 0.21450803004992511 14 2986 12 1711 11 1808
29615 -8.4403807022119874 3.1835492590900452 11.435686040058789 174 148 131 0.17403180870573184 13 2080 14 2312 12 1707
29614 -10.021063308294373 3.2860211934452517 10.202180868179854 100 58 33 0.4972236634340651 13 2064 12 1705 11 1801 9 1364 10 1941 8 1162 7 1145 6 750 5 817
29613 -10.021063308294373 3.2860211934452517 10.202180868179854 100 58 33 0.4972236634340651 13 2063 12 1704 11 1800 10 1940 9 1363 8 1161 7 1146 6 749 5 816
29612 -8.0900878873484174 2.4831225033555167 18.737672686970772 122 116 104 0.21815021326053119 14 2306 12 1697
29611 -4.8085192490485023 2.7737404476126457 5.891147243783152 77 37 11 0.28010819375295154 13 2052 15 3545 12 1690
29610 -7.4326917159634096 2.7076404077577485 9.6132730519569805 23 20 11 0.16123850822547425 13 2050 12 1683 11 1780
29609 -8.3129122027198239 2.4554117988176181 11.495185000865144 102 70 49 0.23555007227508892 13 913 12 1674 11 1773 10 1925
29608 -8.2552617187654622 2.4560438564299876 11.443919979181736 138 109 87 0.33979677033995148 14 2966 12 1668 11 1774 10 1926
29607 -8.1502660335852628 2.3356592420395872 11.068072495042712 157 130 111 0.31800822358584169 13 2028 14 2251 12 1667 11 1763
29606 -8.8919463367367975 2.5396650473844025 10.866431636592537 122 108 95 0.19508043384828611 13 2021 14 2264 12 1661 11 1756
29605 -9.089182955972662 2.5696963688360079 10.885161211655683 158 140 128 0.41633158948130455 13 2033 14 2263 12 1660 11 1754 10 1916
29604 -9.2212656176804764 2.4089601093647381 11.19754435368581 107 78 47 0.29333959907218499 13 2020 12 1659 11 2240
29603 -9.4804276993753582 2.5718484557607022 10.964118795470844 19 7 1 0.38698554290524673 13 2019 14 2262 12 1658 11 1752 10 1914
29602 -10.044967503404461 2.6375910413676418 10.229090351588816 128 88 52 0.26947958261160948 13 2607 12 1656 11 1750
29601 -8.4004561377478986 2.23850568253039 11.094785891685699 23 9 2 0.37663197751683131 14 2216 12 1650 11 1740 10 1905 9 1330 8 1118 6 710 7 1534
29599 -9.5091697867374645 2.4628163243390602 10.652212495742704 171 135 99 0.4231590859495058 13 2017 14 2240 12 1647 11 1735 10 923 9 526
29598 -10.217459260358778 2.5052244473948848 10.2159748289164 93 60 29 0.42600800644908032 13 2597 12 1646 11 1733 10 1893 9 1334
29597 -10.217459260358778 2.5052244473948848 10.215974828916398 93 60 29 0.42600800644910886 13 2596 12 1645 11 1732 10 1892 9 1333
29596 -6.9460850960638059 1.842965847529439 11.537996676808758 60 33 12 0.52296173123734369 13 1972 12 1631 11 1714 10 1885 9 1313 2 1108
29595 -8.1592643831585168 2.1210001058826853 11.067477882397355 55 41 28 0.62208611193096908 13 2004 14 2219 12 1625 10 1882 8 1099 7 1089 6 684 5 762 4 1786 3 1677
29594 -8.2333401788318881 2.0222979430449239 10.924450164139028 201 179 161 0.73074548033147946 14 809 15 2520 16 2313 12 1623 4 167
29592 -8.0718807246448652 1.9700542454653722 10.944064917677021 80 61 46 0.79270341345522788 15 2522 16 2271 12 1603 9 479 6 92 4 1193 3 1192
29591 -8.3549920624865521 1.8564085291336736 11.019466740607784 111 104 98 0.24743946220073329 13 718 14 751 12 1602 10 838
29590 -9.0693943370927812 1.9645182885061256 10.89491174255757 139 123 108 0.497074350531368 13 1931 14 2159 12 1599 11 754 10 830 9 443 15 636 8 309 7 180 6 87 5 63 4 154
29589 -7.3290873423409151 1.6984345599049095 11.245159429366245 132 124 113 0.31063180770040982 13 2564 12 1584 11 2203 10 2351
29588 -7.5016211278869802 1.7390494308196154 11.099535483276822 17 5 0 0.37429965273084598 15 2492 12 1583 8 1074
29587 -9.105399329035393 1.8232801464389248 11.168350193743768 16 13 8 0.25795070569995937 13 1905 14 2160 12 1579 11 718 10 1841
29586 -9.7789439800309967 1.907181879123329 10.687996473837403 146 127 109 0.49986153976467662 13 1904 14 2120 12 1578 10 1840 4 1140
29585 -7.2289283760581089 1.594689735911905 10.845187076087122 12 5 2 0.78014322463002495 13 1911 12 1571 7 1468
29584 -7.4977020609369776 1.5083927997690485 11.069481457161016 125 113 101 0.29206909095379241 13 1891 12 1568 14 2097
29583 -9.6434811745049718 1.778079088383183 10.59890480386291 110 75 43 0.48435682466996266 13 1874 14 2859 12 1558 10 722 9 1258 8 1037 7 1017 6 604 4 1672
29582 -5.2484795190894893 2.3200775421126978 5.5327901847950542 86 44 20 1.6293749587704347 16 108 12 1549 11 1648
29581 -5.3150553996867762 2.3242017363484204 5.4224958546703164 112 65 41 0.59424927416645756 13 2517 15 3343 12 1544
29580 -5.4871588576295647 2.3003927070635037 5.386673219004062 98 51 22 0.76941629765986363 14 2044 12 1529 11 1615
29579 -7.9182594323139863 1.2902459414130738 10.90437723542747 60 46 32 0.56312422755454072 15 2395 16 2184 12 1525 11 1608 8 1456 7 1425
29578 -9.226958222285635 1.3808752038661365 10.791757549648899 37 20 7 0.38896564137804007 13 1861 12 1520 8 1453
29577 -9.2467601550283955 1.2993775793289506 10.541034285237883 107 79 55 0.32386215463854701 13 1843 14 2818 12 1519 11 1582 9 1213 8 984
29576 -6.4177731729168483 0.97371600398103508 10.937792537770022 79 58 39 0.34335315785619053 13 1836 17 2130 12 1517 14 2029 11 1577
29575 -53.948632799054963 -10.57712835447297 70.069648610661858 66 75 74 0.93153331439386955 76 134 12 1502 73 220
29574 -7.4382084793223608 0.81627643318644139 11.02503537972291 58 48 36 0.18819926480981528 14 1997 12 1493 11 1553 8 956
29572 -7.8779326190344134 0.63649645133481547 10.676814932647725 18 2 1 0.2168130921886989 14 1948 12 1460 11 1507
29571 -8.7718621466623485 0.54707052218292362 10.540896276953184 86 65 44 0.66617267020348592 13 1739 14 1922 15 2234 12 1428 10 1636 9 1128
29570 -8.9706639698685464 0.5702188657287679 10.51022846699882 105 84 63 0.83940123199981298 14 1920 12 1427 10 1659 9 1127 15 2232
29569 -17.270085018322511 -13.137723755506242 54.235786228337496 254 255 255 0.72011070943203626 21 2591 12 1407 22 2291
29568 -8.0349029744457123 0.31305084986006743 10.738343740245593 195 174 153 1.1276847578846536 15 2221 16 2001 12 1403 10 1626 9 1113
29567 -8.2220885813618985 0.24620526379314708 10.733457072662565 63 45 25 1.1287842696814032 15 2216 16 1997 12 1402 11 323 10 373
29566 -5.8540271229327834 1.8095030287506551 5.3710047296852599 120 79 59 0.24464441794852962 13 1691 12 1389 11 1464
29565 -5.8502374550400686 1.8142634829639641 5.3556134159780466 120 79 59 0.65148592598951161 14 1883 12 1388 11 1465 13 1690 10 1596
29564 -8.3314122865410933 0.11362386134087676 10.575148652515297 107 84 68 0.22166485762666704 14 1885 12 1387 11 1447 10 1603 9 1076
29563 -8.3935449514394662 0.19563237586276441 10.516304667998314 194 174 155 0.21093744014509844 14 1886 12 1386 11 1445 9 1074
29562 -8.3935449514394662 0.19563237586276441 10.516304667998314 194 174 155 0.21093744014509844 14 1887 12 1385 11 1446 9 1075
29561 -9.225577185831467 0.18400594586361074 10.363601417222217 43 25 5 0.46583431666150193 13 1686 14 1879 12 1384 9 1072
29560 -9.2345640548431955 0.18022447259027899 10.378325976783529 43 25 5 0.51436893096203251 13 1685 14 1878 12 1383 10 1600 9 1071
29559 -9.2297905885709124 0.008303835607465216 10.37993242719817 63 45 24 0.55569001417694053 13 1658 14 1869 12 1365 10 2191 9 1060
29558 -7.6979519541778911 -0.30508805510220888 10.672613537139519 178 163 144 0.14921630416209425 13 2398 14 2695 12 1354 10 2181
29557 -8.0398638865246816 -0.36328748809922246 10.629222591253583 8 7 2 0.31092018630057555 13 1646 14 1851 12 1347 10 1572
29556 -9.503014189854067 -0.34524792244972852 10.323492694073991 177 162 143 0.7240218261738306 13 1640 14 1833 12 1345 10 1570
29555 -9.5104956187133354 -0.24472774025918773 10.340851879745767 98 83 63 0.59862002530164038 14 1847 12 1344 10 1581
29554 -9.4911367816336139 -0.27041028898560271 10.264493888711648 187 175 154 0.94045011295157832 13 131 14 1846 12 1343 10 187 9 58
29553 -6.0133051101487975 1.6090816838385558 5.1764157295326152 103 66 37 0.015539322474500458 13 1632 12 1335
29552 -9.0850655961152516 -0.38206698255338767 10.33912730076028 62 49 32 0.26834345390385539 13 1630 12 1333 11 1410 9 1037
29551 -8.9718256483242591 -0.64708400249241305 10.383311855964612 87 74 57 0.73660723137672768 14 1821 12 1328 10 1549
29550 -7.9602552058074076 -0.82386006675042278 10.536053007352828 163 153 140 0.36137116370693728 13 1608 12 1315 11 113
29549 -8.0284541677907537 -0.94868891979616632 10.562603598678029 77 66 49 0.39379681750294254 13 1604 12 1307 11 1380 10 1534
29548 -8.2640852860808849 -0.96147426446433415 10.465038323715854 158 149 140 0.18905545007581634 13 1603 12 1305 10 1517
29547 -8.3275390587679734 -1.0128812880931128 10.496945472861425 71 62 48 0.32133602705141118 13 1601 12 1304 10 1516
29546 -9.1376613825387558 -0.88191158403904568 10.348109720666663 166 153 136 0.40953538905156467 13 1599 12 1302 11 1376
29545 -6.2221843058270503 8.0565214706526014 14.889501263108297 96 94 81 1.4594270020813909 14 1716 12 1275 9 967
29544 -8.5587089804567 7.7523364813008957 14.42202185270197 13 4 0 0.37224299331245791 13 2279 14 3132 12 1185 15 4172
29543 -8.4782585513238953 6.9939667960333542 12.08364822078096 122 85 57 0.24698887338678774 14 2544 15 1582 12 1184
29542 -5.3862847310351905 7.3697707246209987 16.423651962590551 131 131 125 0.71277923195330761 14 1501 12 1170 13 1389
29541 -8.5091588279996806 6.9068817426460631 12.115482168345579 101 70 39 0.33193495219869174 13 1403 14 1521 12 1164 11 1238
29540 -8.5548235106816044 6.9522798922906412 12.234669010592722 101 70 39 0.56702738594232416 14 1520 12 1163 13 1402 11 1237 8 753 7 792 6 476
29538 -8.5819711543925532 6.5740142142960121 12.161060209299182 171 136 108 0.50043539189653841 14 1462 12 1132 15 2934 11 1202 9 848 10 1357 8 739 7 762 6 452 5 552
29537 -8.5128174691210852 6.3728256636431162 12.061862633792007 96 61 31 0.31811454371611358 14 1429 15 1462 12 1130 11 1180 9 833
29536 -10.28186827216464 7.2754025100388953 13.494059704756635 74 67 52 0.41146223769595119 14 1456 12 1127 11 1196 10 1352 9 846 8 736 6 469
29535 -8.5734571111464923 5.981049143655687 11.963269495279642 136 109 92 0.44028170616204926 13 1290 12 1078 10 1315
29534 -8.567342538261979 5.9526336929864945 11.987905442693121 60 30 14 0.3715885107333125 13 1289 14 2474 12 1077 11 1138 10 1314 9 813 8 1280 7 1299
29533 -6.6282369901212785 6.6350457993842982 18.548497616999551 133 132 130 0.76835247340105861 20 2919 12 1065 10 1319
29532 -6.6995338301094769 4.3503316811226576 6.7014198300642942 122 79 35 0.61772131373039452 13 2184 12 1053 11 1118 10 1230
29531 -5.7404082911960925 4.0423126638959372 6.7502039139039933 68 36 8 1.477140637944854 14 1301 12 1039 11 1108 10 1212 9 701 6 783 5 843 4 1853 3 526
29530 -5.2123617392494435 5.4477078969623616 22.809737663223903 172 169 157 0.35326320818315204 17 867 20 1014 12 1015 18 698
29529 -8.5573221079387967 4.9727345425548988 17.327247291781347 82 63 46 0.90348096534480238 16 2534 12 982 15 3619
29528 -8.4622180719328899 4.4103386260998336 11.705896126550629 181 148 129 0.58796128909228851 13 1095 14 1190 12 963 11 1033 10 1160 8 583 5 457 4 777
29527 -8.4925644625631342 4.1498325944294763 11.676545547962647 159 126 107 0.40142607818610027 16 798 12 945 11 1019 8 571 7 561 5 448 4 764
29526 -8.4515268651346762 3.9286982797028314 11.567950116543473 161 128 111 0.39379786573814091 14 2352 12 943 13 2106
29525 -10.178713169631223 4.1554332485624075 11.187727707901562 43 8 0 2.3012236896290199 13 1045 12 936 11 999 10 1119
29524 -5.119316912672911 3.4400212922530735 12.470737424048338 116 107 92 1.3236271053775692 14 1136 12 934 15 1106
29523 -10.063455409478165 3.9307509730152783 10.352879308620038 143 97 84 0.85870206010498573 13 1024 12 930 10 1108 8 1203 9 649
29522 -8.4566585692870078 3.6132970296281024 11.486643406109037 159 133 118 0.25620790513453534 13 1015 14 1107 12 923
29521 -9.4766821213324111 3.77319966677755 10.562367296712319 129 99 75 0.70923709169905802 13 1011 12 921 11 984 9 1387 8 1204 7 1203 6 788
29520 -10.195621804260423 3.9055599101418617 10.337721695087936 142 95 77 0.39624062397020149 13 1021 12 918 11 977 10 1105
29519 -8.3753698360689075 3.4481501626119275 11.521873630913772 198 161 130 0.23581609346744137 13 1000 12 912 10 1097 7 483
29518 -8.3768478475073476 3.4478886269271309 11.527082565707335 198 161 130 0.20783304832752042 13 999 12 911 10 1096 7 484 3 555
29517 -9.09040155496076 3.5822463302505021 10.694858415688392 205 162 129 0.35250216322803246 13 995 14 1101 12 909 11 971 7 479 6 265
29516 -10.255960541346932 3.7193205288799689 10.399000073590422 64 20 3 0.57261141584087993 13 2083 12 908 11 967 9 637 7 471
29515 -7.0059055155899159 3.1312656135641723 13.816811010867827 105 90 79 0.800008998817059 15 4380 12 903 11 976
29514 -8.9056939010453018 3.1066672534378137 18.183155170468886 191 178 168 0.30720419918086833 13 980 14 1071 12 902
29513 -8.4010420066965423 3.2884099205177946 11.499314779762832 195 160 132 0.39055290106987695 14 1082 12 900 11 963 10 1080 9 615 8 496 6 270 5 357 4 587 3 539
29512 -8.4768721254390584 3.3403434701173214 11.496663768924325 25 3 1 0.16262945102946441 13 998 14 1081 12 898
29511 -8.4974633704767264 3.3054038809945423 11.574948725747795 149 126 115 0.28774432618912987 14 1080 12 897 5 355
29510 -10.008938201485771 3.4098067080751773 10.296701995076676 42 11 2 0.27256030057647729 13 970 12 893 11 943 10 1058
29509 -8.3328806757080915 3.1127298589081023 11.461898185056272 198 165 135 0.17440152759237421 14 1068 12 889
29508 -10.063357128160524 3.2871864320536002 10.084467723708816 130 84 60 0.25493636886198662 13 955 12 883 11 1798
29507 -10.143595087350002 3.3762355261696646 10.179731530810146 147 97 74 0.56530965747736339 13 956 12 881 10 1955 6 748 7 1165 5 829
29506 -8.2698757374917093 2.5525657807940458 11.392951403049782 144 112 91 0.25940664623875981 14 994 12 831 11 900
29505 -8.3820445888228807 2.4991822597070126 11.151982030452142 198 176 165 0.38043877372771701 13 2041 12 829 14 2275 11 1771 10 961
29504 -8.6395493044294458 2.5334060346672036 11.052114967358708 144 128 115 0.21550957661099332 13 909 14 984 12 827 11 895
29503 -8.7821716539252801 2.6081452604596858 11.014584481487518 155 143 131 0.2580330575035073 13 907 14 982 12 826 11 894
29502 -9.0587660319166083 2.5834346096588798 10.948348297751027 19 5 0 0.3426346785021398 13 2034 14 975 12 822 11 1766 10 1917
29501 -8.4209831969091002 2.4033148183448634 11.12602664846899 17 1 0 0.32958172844697731 13 878 14 942 12 803 11 881 10 960 9 539
29500 -8.7005906839356104 2.4629908362663699 11.092757660173838 100 86 73 0.31604629513925336 14 935 12 801 11 878 10 956
29499 -9.3453013935874907 2.5724739899041218 10.950084888805103 38 20 7 0.28776111405676819 13 870 14 972 12 796 11 874 10 951
29498 -9.3694664552459592 2.4647098016341711 10.722197609887511 39 20 5 0.18628296440296091 13 867 12 795 11 873
29497 -9.6854442270564256 2.491359618705292 10.770038902653763 62 34 6 0.32910087895103285 13 865 14 923 12 792 11 868 10 922
29496 -9.6538421143565998 2.4943628382578282 10.718749752320548 62 34 6 0.25371751578086144 13 864 14 922 12 791 11 869
29495 -9.8233541476213109 2.6364408233364953 10.247161519351637 104 58 22 0.17498440961628967 13 863 12 789 11 866
29494 -9.9748595733519245 2.5825513822040089 10.372750114316469 135 92 55 0.24599304552964818 13 2016 12 788 11 865
29493 -5.1845595971092084 1.8921813771464173 11.695753162909572 114 86 63 0.41836628454348707 13 843 12 769 14 899
29492 -5.1845595971092084 1.8921813771464173 11.695753162909572 114 86 63 0.41836628454348707 13 842 12 768 14 898
29491 -7.9567140131589342 2.1350004743596855 11.390227870547351 118 90 69 0.23678849305296734 13 829 12 763 8 361
29490 -7.9318141900981152 2.1399050813465461 11.036587389540852 174 150 131 0.49126625593438566 13 828 12 761 11 850 7 1090 6 131 5 195 4 260 3 386
29489 -8.3377793304239738 2.3191763552848337 11.139164651654157 41 23 11 0.41372347728678199 13 879 14 941 12 759 11 883 10 931 9 538 8 391
29488 -9.5052299081506906 2.372914726947899 10.621073589283023 55 20 1 0.29989797858506784 13 814 14 874 12 755 9 505
29487 -9.5385062499151534 2.3149157981443791 10.658841405806465 34 5 1 0.43129106134684059 13 812 12 754 14 872 8 355 7 265 4 313
29486 -9.7130226760850373 2.4224085269049227 10.724600337397936 73 42 13 0.37992374418861319 13 811 14 871 12 753 11 835 10 920 9 525
29485 -10.150903756854934 2.5571897714868417 10.190349042283671 106 73 42 0.22206261359449878 13 1995 12 752 11 833 10 917
29484 -5.397302477098548 1.7491584441459203 11.494585689713617 24 5 1 0.14832912827374492 13 786 14 846 12 735
29483 -6.566643068448168 1.8420204512498706 11.603186951762542 119 91 70 0.21631338074768847 14 832 11 808
29481 -9.5164695971169486 2.2464957848822587 10.776486049480987 106 80 55 0.38042523250237564 13 765 12 717 11 792 5 187 4 249
29480 -9.7509952087463887 2.2559893664908834 10.741592523327926 97 64 36 0.43767134018522746 13 1960 12 716 11 790 10 877 7 1083 6 125 5 186
29479 -10.372149347459517 2.3397844884692693 10.26987329558165 217 182 154 0.41890790980180942 13 759 12 715 9 503 8 351 7 1082 5 181
29478 -5.4121564434113774 1.6347691025978357 11.45226799350152 133 115 95 0.87298290820041102 14 2174 12 707 13 1953 5 691 4 1175 20 289 2 94
29477 -5.4429038578383384 1.6752214239662964 11.439703062940062 121 99 76 0.38367014386641091 16 459 17 411 12 706
29476 -7.1597730412223139 1.7510962816875022 11.103895372261023 49 28 11 0.40308728003374461 15 663 12 695 11 770 9 451 8 288 7 143 6 60 5 33 4 94
29475 -8.3214691983199884 1.889006275348144 11.050655899372051 82 63 45 0.43882732485269471 13 719 14 752 12 687 10 842 3 195
29474 -8.5820739379682625 1.968910002195438 10.964363482022733 144 129 116 0.26330390440159818 13 716 14 807 12 686
29473 -9.0638799952357676 1.9133637366064733 10.955883390301421 122 114 103 0.38537501078547709 13 715 14 748 12 683 11 755 10 831 8 279 6 86
29472 -9.0923504329030767 1.9222321946729928 10.903526846053186 69 57 45 0.38213154318591053 14 2158 12 682 8 278 7 179 6 85 5 62 4 153
29471 -9.5241238198672686 1.9638196752668344 10.74700844928204 43 18 1 0.28984990401567873 13 711 14 737 12 680 11 1674 10 829 7 1041 6 650 4 149
29470 -9.5319285960429792 1.975908791685312 10.601631869539339 36 8 0 0.41577520729488116 13 710 14 734 12 678 11 750 10 825
29469 -8.3335255293770594 1.6813225631719029 10.96390198046295 12 9 4 0.99490604385061843 15 606 12 648 16 350 11 719 6 24 3 117
29468 -9.154276568347445 1.8091948250058099 10.906932580144087 33 24 15 0.2175813993630541 13 663 14 680 12 644
29467 -9.2292380784063965 1.8728028101794305 10.828753016259665 169 153 138 0.39969364770062943 13 662 14 738 12 643 10 780 7 175 6 50 5 58 4 72
29466 -9.2390319002529235 1.8418607785573291 10.821479299142194 168 151 135 0.38402697501493427 13 657 14 677 12 642 11 713 9 440 5 56 4 71
29465 -9.1562390724701821 1.7342949137845609 10.839019026570677 117 104 95 0.37401872700720684 14 2121 12 640 11 714 10 778 9 410 8 253 7 123 5 9 4 10
29464 -9.2556001555889456 1.7607582191786566 10.823694925173081 158 139 122 0.36658952799179284 13 656 14 674 12 639 10 775 9 405 8 248 7 120 5 10 4 69
29463 -5.0479115789789404 2.4029754534010159 5.4796462870468021 131 92 71 0.50974894135659288 14 636 12 625 11 737
29462 -8.7724659503855413 1.6240758271077687 10.854457134841503 56 44 32 0.33557762082264986 14 617 12 615 10 735 7 992
29461 -8.9657736579818277 1.6839535163400483 10.848850609828828 12 4 2 0.74420158499613864 13 1881 14 2124 12 612 15 3421 11 1629 10 1817 9 1259 8 1042 7 1023 6 945 4 1113 5 674
29460 -9.0162733630741059 1.6323744248253298 10.808766695155144 136 120 108 0.43383272014042901 14 2081 12 611 10 1816
29459 -9.0702567340144604 1.64510911975455 10.859322438053354 51 33 23 0.32873633217641324 13 605 12 610 10 732 8 251
29458 -9.2195333467903833 1.6808391594737717 10.803975318008989 145 126 111 0.35430626746966848 14 611 12 609 10 727 9 406 8 247 7 1019 4 8
29457 -9.5841000382677723 1.7200349083228956 10.553268441297629 183 148 116 0.3294057434998921 13 598 14 606 12 606 10 721 9 403 8 244 7 79 6 11 4 0
29456 -9.2263715425129273 1.4697171520795347 10.752415855362422 130 113 97 0.40610029066410147 13 551 12 579 11 616 9 365 7 53
29455 -9.3387313879452254 1.5046660389851214 10.578513907492811 16 0 0 0.21420237175111326 13 547 12 576 11 614
29454 -9.3387313879452254 1.5046660389851214 10.578513907492811 16 0 0 0.21420237175111326 13 546 12 575 11 613
29453 -8.8546304589686873 1.2618615673946896 10.694707687049499 59 42 27 0.31837474272575067 13 523 12 552 11 579
29452 -9.0036631644693301 1.2868620356700244 10.826672396019465 59 42 26 0.3643545199302291 13 524 15 2370 12 551
29451 -9.1349808887727946 1.2920230506361281 10.773131244157362 101 87 78 0.29263018190776247 13 520 14 535 12 550 11 577 10 632 8 180
29450 -9.1568289476418201 1.2743353110813582 10.760902333275521 106 88 75 0.4982862755925056 13 1844 12 548 14 2820 8 146 8 1437
29449 -9.3566909518650885 1.3847742964225902 10.543213764269119 96 67 39 0.33341065198329073 14 533 12 547 11 575 8 177 7 945
29448 -9.4488870626887405 1.3811650819279282 10.524530138890826 146 125 100 0.34148977461228919 13 1842 14 2035 12 546 11 573 10 1767 9 362
29447 -9.1677496997225827 1.1836619479507973 10.541366414759676 76 58 38 0.35890693437745813 13 488 14 506 12 513 11 539 8 95
29446 -6.6383601352275896 0.55721101694349262 12.278483996033467 226 210 191 0.15939665074254614 13 510 14 520 12 491
29445 -7.4664310635072715 0.80568653229968246 10.993463013755438 119 111 100 0.31798218596144373 17 108 12 488 11 515
29444 -6.0562642375092581 2.2052848581818529 5.3229426100678463 124 76 37 0.32066460666978552 13 440 12 473 10 515
29443 -6.1752303266152753 2.164375468765221 5.2503532930683559 132 78 52 0.84464100328129699 13 404 12 470 11 501 10 513 9 98
29442 -54.452609226455031 -11.705838089699425 70.395038359073752 74 84 84 1.2292701588909245 13 1803 76 112 12 459 73 1501 74 1538 75 2309
29441 -9.4662925357237082 -16.10985707371254 74.275481287413356 63 44 20 0.87712547080610648 20 3573 12 450 24 1358
29440 -8.2266747701366594 0.75602468115661292 10.791092279421106 123 114 105 0.44750786370517354 13 410 15 312 12 438
29439 -8.174049629932334 0.69386543312921556 10.900407868118224 26 17 10 0.39021809802992408 13 411 12 437 11 466
29438 -8.3887740484467024 0.60261649654109972 10.531517992909841 204 185 168 0.2733720881254198 14 373 12 416 11 425 10 466
29437 -8.4477943773801574 0.60068379497720148 10.580515509024215 190 171 154 0.29080338936021244 13 377 12 415 11 424
29436 -8.692064322282274 0.63507924926841708 10.552997053602725 94 73 54 0.0767964262844259 14 1937 12 414 10 465
29435 -6.3617536293213988 2.054562587691946 5.2102580014737701 186 141 103 0.701976842198067 13 362 12 404 11 460
29434 -12.483031807759218 -9.436059167667926 45.955050444010283 187 138 97 1.9814824003176639 17 178 12 382 11 393 14 402 13 392 12 383
29433 -8.5265649151376515 0.40620893021591004 10.598304980918616 29 9 1 0.48709358571393657 13 1740 12 368 11 375 9 164
29432 -8.5961102841944452 0.5130682561591634 10.531392861565289 98 79 61 0.37367227760676763 13 321 14 1923 12 367 11 374 10 416 9 163
29431 -9.0627726193694969 0.5691570226417203 10.484857889684776 85 64 43 0.27649805031302227 13 318 14 322 12 361
29430 -8.3315176173042058 0.34501069112800309 10.531280972251375 42 21 7 0.24103683928739214 14 270 12 312 11 317 9 123
29429 -8.2830552598347431 0.23940044555714754 10.539002207509309 89 68 47 0.25832801186078008 14 269 12 311 11 316 9 122
29428 -8.3738149975020608 0.24429647126750578 10.522452739035506 38 16 5 0.23769584178750003 14 268 12 310 11 314 9 118
29427 -9.1713219679882449 0.39514476134950638 10.41923250935684 174 156 136 0.38857073330694514 13 278 14 256 12 301 11 303 10 345
29426 -9.2162732513076886 0.42416711956596431 10.398880089751341 215 194 173 0.34215716544772884 13 273 14 255 12 300 11 360 10 402 9 149
29425 -9.1393320537397198 0.36579743093785333 10.418771849712003 30 12 0 0.28170154996406144 13 275 14 254 12 299 9 151
29424 -9.1393320537397198 0.36579743093785333 10.418771849712003 30 12 0 0.28170154996406144 13 274 14 253 12 298 9 150
29423 -9.1641023643033037 0.27084535322401948 10.528611360520852 82 65 45 0.37037518131027342 13 1703 14 257 12 297
29422 -9.1964664280439781 0.28795195055387857 10.395394391235937 48 31 8 0.43555313108296634 13 241 12 296 10 343 9 108
29421 -8.8849293879538749 0.20906373388388877 10.40210229990932 78 75 64 1.2699247367771902 13 1689 14 215 12 264 10 300
29420 -9.0154763838944696 0.15786737218442345 10.546107296591931 91 85 73 0.74089694282610397 13 242 12 263 9 111
29419 -7.7673429946224335 -0.082252323412337083 10.655015315208153 208 192 176 0.26294526327470563 13 212 15 2146 12 236
29418 -8.0327547310021465 -0.11219723645659892 10.642496158806022 35 18 7 0.23843817913471535 13 209 14 188 12 231 11 246 10 270
29417 -9.3258428131621027 0.12247554122166461 10.329102028137763 193 176 158 0.74189049316006106 14 177 12 225 9 90
29416 -9.4089569547364746 0.012447332937993938 10.348183813456023 171 156 137 0.52508750131418946 14 174 12 222 10 254
29415 -9.4089569547364746 0.012447332937993938 10.348183813456023 171 156 137 0.52508750131418946 14 175 12 221 10 255
29414 -7.7692157724991384 -0.29539561749678817 10.678519105042049 164 149 130 0.48408573123724824 15 12 12 195 10 238
29413 -8.039763047316514 -0.18077273562340393 10.663405354756851 177 160 142 0.14745072546551061 13 176 12 192 10 234
29412 -7.9593128970797924 -0.2942499646418345 10.639226869579318 174 158 143 0.17513973416326545 14 153 12 191 10 233
29411 -9.2778225945916795 -0.058211440438645193 10.431555345769656 128 112 94 0.43459235173098371 13 168 14 146 12 185 10 256
29410 -9.5914508484950201 -0.048762245742182853 10.341483997612515 177 165 149 0.58076627333706232 14 143 12 181 10 250
29409 -9.7837689879640575 -0.17349037140980395 10.292041543675074 60 50 40 0.74753988983318786 13 130 14 111 12 180 11 209 9 57
29408 -7.5668157352242824 -0.39297847618496895 10.71900083194781 97 84 67 0.29238015486577001 13 146 12 172 10 207
29407 -7.5913080671785966 -0.37781205829560544 10.68547118725732 154 142 126 0.24303700009464249 13 145 14 127 12 171 11 206 10 206 9 50
29406 -7.7193911624604725 -0.41134681862246608 10.687263600842147 87 72 53 0.36477277496767746 14 126 12 170 10 205
29405 -7.7537415266501482 -0.40588838487686257 10.652725185454965 74 57 39 0.29516576509185094 13 143 14 1853 12 169 11 205 10 204
29404 -7.8719768186602979 -0.40999605655165139 10.641721059694436 30 13 5 0.26947063031094204 13 142 14 125 12 168 10 201
29403 -7.9089440103712851 -0.37474615308873438 10.618664806060108 193 176 160 0.13954192883303662 14 124 12 166 9 47
29402 -7.9443892923317119 -0.37777576421816195 10.620489114999614 75 58 42 0.22806222133362858 13 141 14 121 12 165 10 200 9 42
29401 -7.9285771764903794 -0.42124087272090643 10.615058809172611 90 73 57 0.32146881422331136 14 122 12 164 10 198 9 1044
29400 -8.0620036705236995 -0.29182032215929227 10.598408130400305 22 23 18 0.24625339638815036 14 119 12 162 11 1423 10 231
29399 -7.9910629187454347 -0.3728375238858207 10.595032730947848 164 156 144 0.24869967053362224 13 138 14 120 12 161 10 197 9 41
29398 -9.0841649835140181 -0.30719564712254488 10.357729485990856 108 92 76 0.33201290031302644 13 135 12 158 11 200 9 30
29397 -9.1872365247974894 -0.3054300881715834 10.300141003644431 85 70 52 0.21561976464351479 13 133 12 155 11 197 10 189
29396 -9.3803909459508166 -0.23367523362828915 10.343726445036992 94 78 61 0.71021823008525087 13 1641 14 1849 12 154 10 226
29395 -9.3892506958154218 -0.31498455107645168 10.28755037154707 88 73 54 0.24831197670655072 13 132 12 152 11 195 10 188
29394 -7.7342463903589849 -0.50690852336067926 10.657180568734605 76 61 42 0.29376028934271914 13 118 14 97 12 137 10 171
29393 -7.7342463903589849 -0.50690852336067926 10.657180568734605 76 61 42 0.29376028934271914 13 117 14 96 12 136 10 170
29392 -7.9042928679117326 -0.46048889475515442 10.580538187436526 98 83 65 0.21734980186973277 14 95 12 135 9 43
29391 -7.898675415609028 -0.51308978029560026 10.609642880012618 81 65 47 0.21512351391118828 14 90 12 134 10 162 9 17
29390 -9.0709278297136553 -0.41520342533362553 10.333763068934028 179 167 150 0.69289175765077982 13 112 14 85 12 131 9 29
29389 -9.0709278297136553 -0.41520342533362553 10.333763068934028 179 167 150 0.69289175765077982 13 111 14 84 12 130 9 28
29388 -7.7205305359522018 -0.68189289839609324 10.687148417430622 173 160 143 0.27387176040214345 13 81 14 54 12 109
29387 -7.6958907994504928 -0.65701403633006283 10.628222871535119 173 160 143 0.27749300822375389 13 80 14 53 12 108 11 182
29386 -7.9410404665830425 -0.72932601136299213 10.664838011222043 103 90 73 0.31329044211053353 13 79 14 49 12 106
29385 -7.9718822742835966 -0.7086430049723812 10.603291207664046 4 5 2 0.30523650508344813 13 78 14 48 12 105 11 165 10 1550
29384 -8.9351772458732786 -0.68443342204819924 10.438432578384978 73 64 48 0.72754769475739456 14 46 12 100 11 155
29383 -9.0126430916265523 -0.69118743828335105 10.41381010525504 184 171 154 0.54405864993724928 14 44 12 98 11 153 10 125
29382 -9.0502903666059069 -0.62928073881424396 10.398715537841319 184 171 154 0.58892068676215259 14 45 12 96 11 151 10 122
29381 -9.2569983428537217 -0.63864679996622986 10.388746076179794 81 66 45 0.73167615397320551 14 42 12 94 11 148
29380 -7.5580772251734949 -0.92362748193296762 10.679179159180805 87 71 55 0.39587515321194416 13 50 12 73 11 119 10 102
29379 -7.7047340875090233 -0.84461971427194926 10.607771043552223 95 82 65 0.37196552860292514 14 1805 12 72 11 117
29378 -7.7701664032126647 -0.83140300297511094 10.670092946667964 84 71 54 0.38290437509556635 13 48 14 21 12 71
29377 -7.8817464878716885 -0.79262743200978514 10.586009749619468 190 174 158 0.34211208748025479 14 17 12 70 11 164
29376 -7.9370151261429864 -0.77305002107415088 10.552941853283983 172 163 151 0.34702320414828869 13 45 14 1804 12 69 11 161 10 128
29375 -7.9514420458386859 -0.81161577581626454 10.574999287477459 82 73 57 0.40171660619378563 14 15 12 68 11 160
29374 -7.9514420458386859 -0.81161577581626454 10.574999287477459 82 73 57 0.40171660619378563 14 16 12 67 11 159
29373 -9.2617088137548702 -0.74876914738689482 10.401493952462333 67 56 34 0.88493381765400125 14 5 12 65 11 146
29372 -7.5792903212400811 -0.97294838386832927 10.640599203637503 90 75 56 0.35341471367326949 13 23 12 48 11 118 10 100
29371 -7.7620903788344684 -0.97818692218788938 10.606992469307102 88 77 59 0.35224731111255586 13 20 12 45 11 114
29370 -9.0571623185607741 -0.8636480458055199 10.29045535773176 62 49 29 0.25945356560053995 13 8 12 36 11 100 10 79
29369 -9.0293942827815048 2.012776186129102 16.817367295830007 61 41 29 0.79990568986230492 14 4111 13 3703 12 3201 11 3142
29367 -4.1845455833209764 2.026817476051689 6.3511541140367509 117 68 32 0.29706508069411536 14 573 13 543
29366 -4.5894452452906513 1.2216199954188487 9.5778051976495124 221 207 192 3.7383104519631414 20 1 13 539
29365 -8.3910191890407173 0.86302442725114192 10.652217307313018 146 134 122 0.36324202851865162 14 486 13 448 12 434 10 1717 8 949
29364 -8.3852878759743898 0.86533070572204385 10.640063974160055 146 134 122 0.44747616159762682 14 487 13 447 12 435
29361 -8.6658070741085371 0.64074759467243048 10.473697616773656 97 80 62 0.46208700942982051 14 3531 13 3148 12 2652 10 2836 9 2181
29360 -8.5094023932539322 0.74515085370310963 10.660340767514917 46 32 20 0.63115997530090906 14 431 13 409 10 503
29359 -8.5836114487833282 3.3721150994563742 17.421663407376219 201 181 167 1.8325675751671373 16 759 17 733 15 1076 14 1085 13 1001 17 719 12 913
29358 -8.2266341003545058 6.2459046792720647 16.239322379275148 47 42 36 1.8701436100302296 15 4957 13 3730 10 3404
29357 -5.0962210811706585 2.0307436182802459 7.6994994034379847 15 14 9 2.711733543199863 14 4134 12 3233
29356 -4.4804196813690842 3.8264269025248598 6.6717921135629048 103 62 32 0.30427202290706806 14 4125 13 3714 12 3209
29355 -8.4938172092357629 6.7211013693500172 11.993448976866889 142 104 76 0.35872418345034474 14 4061 15 4804 13 3650
29354 -8.8755530417870201 6.2220188114571116 12.409196877212363 51 50 50 1.1705939752805086 14 4060 15 4866 13 3647 11 3125
29353 -7.8253668636693821 7.9217532856783164 14.70609399659088 40 36 25 1.2721096648447356 14 3957 15 4806 13 3600 5 1400
29352 -4.5480298152767027 3.7825199527059974 6.7413814191691079 204 146 108 0.3511053734461751 14 3927 13 3515 12 3016
29351 -4.5480298152767027 3.7825199527059974 6.7413814191691079 204 146 108 0.3511053734461751 14 3926 13 3514 12 3017
29350 -8.2855719834746342 2.3819947794402809 11.139569235134308 115 93 79 0.73550489012606746 14 3887 15 4780 16 4546 13 3483
29348 -4.5270693401945152 3.8916821778542952 6.7200895055610328 78 47 19 0.10025487244397784 14 3786 13 3397 12 2916
29347 -4.8912552289528373 1.9108943038483435 11.668062750529765 92 60 37 0.27319056613160536 16 4468 13 3359 12 2873
29346 -5.0192521145020574 2.6084999772347186 5.9843272323426389 106 68 45 0.90746743618741343 14 3748 13 3355
29345 -8.1704870396740699 2.1135272935494616 10.988327657013496 58 45 36 0.74126682621348705 15 4539 16 4306 13 3352 12 2705 11 2733 10 2901 9 2236 7 1978 6 1317 5 1420
29344 -8.4447081745320851 7.7596886438582473 12.138253619559855 169 136 103 1.3089198590165083 16 4230 13 3285 15 4627 10 2970 9 2400 8 2187
29343 -10.19237941626643 7.1187600475706656 14.133687874518852 66 66 69 1.1095956677670318 14 3808 15 4426 13 3268 12 1826
29342 -8.5707717671342749 5.7436706934135673 12.019603908212344 98 65 48 0.38251858630495733 14 3666 15 4418 13 3254 12 2777 9 2275 3 2162
29341 -8.084797273927661 2.2651748318063265 11.25694435165541 83 57 36 0.76243095669295124 15 4549 13 3207 12 2715 11 2536 10 2700 9 2066
29340 -8.4246652536715345 6.1770843950795777 12.078848241791468 123 90 56 0.61122080698787129 16 4201 13 3083 15 4424 8 1923 7 2041 6 1261 5 1390
29339 -8.3528364657076999 4.9390195852317786 11.756608768988155 107 73 45 1.0137773411464357 16 3880 13 3024 12 2757 11 2772 10 2940 8 2070 6 1361 5 1383 4 2191
29337 -8.3789345051009789 4.4599213298274423 11.76724379012782 122 86 52 0.54182208811626476 14 3019 15 4384 13 3014 11 2586 3 1985
29336 -6.9432610806449544 2.7796454215017672 9.5389047410867747 48 47 42 1.2567445653624454 15 4355 13 2982 12 2511 11 2552 10 2425 9 1787 9 2076 8 1558 7 1552 6 1018 5 777
29335 -8.7989967978954358 1.8331010382030444 17.098291049970353 122 100 87 1.6259015304561946 15 4348 13 2974 12 2505 11 2544
29334 -8.3402163811164627 1.9639088106474691 10.954733676992156 160 145 126 0.89044761093788649 15 3475 13 2937 14 2188 11 1678 10 1860 9 476 7 1043 6 655 4 1189
29333 -5.0820906427024584 2.3546855744741544 5.4518983400543819 171 114 84 0.54400374765231041 15 4292 13 2915 12 2457
29332 -7.4070058347985643 0.74400003291497596 11.036170557898259 31 17 8 0.49197549153308268 15 3904 17 4136 13 2891 11 2446 9 1976 8 1736
29331 -7.6494344547492146 -0.25256535782802875 10.669770997177809 28 13 3 0.12957414131009681 14 3202 15 3856 13 2850
29330 -7.6494344547492146 -0.25256535782802875 10.669770997177809 28 13 3 0.12957414131009681 14 3201 15 3855 13 2849
29329 -5.3170419320670286 7.9328659312655168 14.750403319830586 103 103 95 0.86063025107672442 15 3768 13 2831 4 1651
29328 -8.3715702053023229 7.770793586176354 12.102142476685634 123 90 57 1.0894698218014445 15 3778 13 2824 14 3161 9 1534
29326 -8.4964007007914635 6.4644122917763989 12.216913237346517 122 91 53 0.85619905268232233 16 3472 13 2768 15 4149 12 2285 8 1671 4 1977
29325 -8.5293712864043378 6.4825932224205447 12.07972963539347 116 84 51 0.55228412100496171 14 2495 15 2919 16 3473 13 2766 11 2334 10 2078
29324 -8.6577237357909134 6.5695413316608224 12.175938066438608 139 118 104 0.49919840304174168 14 3110 15 3696 16 3470 13 2765 12 2284 11 1913 10 2525 9 1483 8 1670 7 1672 5 935
29323 -8.5755386856091977 6.1722141903835821 12.030828616775089 174 141 121 0.38198704220896235 14 3097 15 3685 13 2756 16 3450 11 2325 12 1818 10 2520 8 1664 7 1312 6 1121
29322 -4.5290880707575472 4.0312652546449961 6.7259491238052265 144 122 95 0.29353320216381756 14 1346 13 2730 12 2262
29321 -4.4653521137807779 3.8510141006975522 6.6368996294428442 118 82 48 0.14202749251555166 14 3057 13 2716 12 2559
29319 -4.1153330512152806 3.7806182373078432 6.8291534584909153 30 26 20 0.53730960734441768 14 3059 13 2712
29318 -4.5298867132279863 3.8156336219988751 6.6899690653342967 152 101 64 0.32142282304561021 15 3633 13 2708 12 2246
29317 -5.8179505529543185 4.4944625494390547 11.810473767556294 153 144 133 0.10851951265731355 15 3632 13 2704
29316 -4.3174700253111418 3.5950851451952017 6.6447850837880367 196 180 168 0.01569017760910791 15 3614 13 2696
29315 -10.110847553552158 4.709894350794066 14.242223355196412 70 49 32 0.91564132846120505 14 3015 15 3607 13 2685 12 2227
29314 -8.956756478372407 2.5240923168476614 11.002028699945573 125 111 99 0.41046270977726496 15 3551 13 2611 12 2159 10 2409
29313 -8.2188606082317914 2.1176270100658257 10.948638275889948 107 94 82 0.87961121428979572 15 3509 16 3264 13 2580 5 1048 4 1783 3 1637
29312 -8.9903926143430759 2.0798575828215853 10.981330981765947 13 3 0 0.70154849593918744 15 3472 13 2577 11 2222
29311 -8.0634884999410499 1.8825384791235844 11.07058104743593 78 59 44 0.67687000913205164 14 2879 15 3448 16 3231 13 2561
29310 -5.0936002825090743 2.4132790844000618 5.4370461979656541 79 36 17 0.63003104533057108 14 3274 13 2551 12 2456
29309 -8.4783732445153497 1.6339644732908019 10.945225260775757 146 132 121 0.81481084777078849 15 3422 16 3202 13 2537 12 2080 11 2147 10 2330 9 1714 8 1487 7 1457
29308 -4.7004381571315665 2.2391150551235031 5.6560375807291399 228 203 177 1.1175533086609077 15 2324 13 2528 12 1554
29307 -5.3526046969202836 2.2590577474440607 5.6258770162401124 101 60 32 0.279744510014239 14 2825 13 2516 11 1616
29306 -5.6918401838170301 2.2558389062725928 5.3714627703540918 115 55 27 0.5645727799057435 15 3901 13 2507 12 2043 10 2275 9 139
29305 -7.1582604649116579 0.89317488930635025 11.157290735772001 65 44 31 0.33446266651510109 17 3194 13 2502 9 1202
29304 -5.7579709771283074 2.2766270009833693 5.2364194317864667 165 121 85 0.099796359354824088 14 2801 13 2495
29303 -5.8410188552845685 2.2519426901251136 5.3192828086941679 152 110 72 0.83957252817449268 14 2799 13 2493 11 2116
29302 -7.0231760268370493 0.74620893578192116 10.819750142294774 19 2 1 0.50930051386677844 14 2792 15 3330 13 2473 12 2017 11 2093
29301 -7.7784735714842821 -0.045636909428344238 10.677988118455765 26 8 1 0.39962964763038744 14 2711 15 3265 13 2411 12 1954 10 2192
29300 -7.7450725725584126 -0.12052301383375603 10.702438133714068 47 29 16 0.18181248079595666 14 2709 15 3259 13 2410 12 1957 10 1593 9 1592
29299 -7.7450725725584126 -0.12052301383375603 10.702438133714068 47 29 16 0.18181248079595666 14 2710 15 3258 13 2409 12 1956 10 1592 9 1591
29297 -27.14563278978958 -33.798685346049282 89.949417744551525 129 135 131 1.9164695361794286 13 2387 141 1373 139 1385 54 861 145 1493
29295 -4.4919097619397634 7.6090848708729304 14.422839066098184 97 98 93 1.105617112197516 14 2626 15 1799 13 2357
29294 -4.1583227107600482 7.5680715055685654 16.107876888767425 115 116 111 0.98583708285530647 16 2758 13 2315 15 3034 4 1631
29293 -5.1220008141524502 7.7133981502424538 15.591928990361176 100 100 98 0.96878755166056785 15 3028 16 1270 13 2314 5 629
29292 -4.7222199676325607 7.5719695700746081 15.933677491186192 106 107 102 0.88381223068810189 15 3032 16 2756 13 2297
29291 -4.7013269371870736 7.5025856698014222 15.686496608841782 106 107 102 0.98395684296985297 15 3031 16 2757 13 2296 12 1886
29290 -4.2706494424329149 7.2665651914267775 15.910744750831194 92 93 88 1.9242910869599352 13 2286 12 1887 14 1539
29289 -10.032710008480963 7.7421133234392565 13.809083642224923 12 9 0 0.7851409496448728 15 3722 13 2276 12 2293 10 2534 9 1893 8 1931 7 1912 6 1129 5 940 3 1819
29287 -7.0805220101464696 7.5256285447255404 16.400896901016075 114 110 99 0.76236391446836327 15 1516 13 2253 4 969
29286 -8.5452539909433085 6.7045666544763058 12.212931394263759 180 147 113 0.90235468991759826 15 2936 16 2681 13 2249 8 740 4 920
29285 -10.043109782371795 7.3151521073440566 14.0525400214703 64 59 47 0.96891072753496754 14 3109 15 3702 13 2247 12 1833 7 1334 6 885 3 1463 4 932
29284 -8.3273114518429452 6.0712225784621872 11.796329256235715 126 93 60 0.89264763163112282 15 1393 13 2237 12 2271
29283 -8.591201187217516 6.1305943044472029 12.035437916419053 60 37 23 0.59822582575818029 15 2878 13 2228 16 2618 11 1902 10 2062 8 1286
29282 -8.5923286858038157 6.1311161436139212 12.03795719735011 60 37 23 0.48446907633478908 15 2877 16 2617 13 2227 12 1817 11 1901 10 2063 8 1285 7 1300
29280 -8.3885774297571025 5.435468083750572 11.889045395522745 123 90 55 0.99514540585906597 15 2834 13 2187 14 3069 7 674 16 2577
29279 -4.6181713537198954 3.7880730625005152 6.6561244879740888 139 93 63 0.4852990049161317 16 2527 13 2178 12 1780
29278 -4.3969045253648247 3.6717904097000251 6.6279219810425056 92 53 22 0.15644850921691683 16 3379 13 2160
29277 -5.1428580318218104 3.6771443101178933 6.8051275269421012 115 68 40 0.5779036622005953 14 3027 13 2130 12 2229 11 1847
29276 -8.3569921308692141 4.3250372636959717 11.718596731500986 117 83 49 0.70557789333763632 15 3608 13 2118 12 965 10 1999 6 833 5 891 4 1519
29274 -8.4026430291429293 2.4985053917086177 11.059525820337123 73 55 40 0.51027878118456804 14 2274 15 2653 13 2040 12 2163 11 1770 10 1924
